ply
format ascii 1.0
element vertex 139
property float x
property float y
property float z
end_header
0.356542 -0.055040 0.066267
0.359816 0.029681 0.068532
0.360628 -0.031345 0.069199
0.361914 0.017505 0.070530
0.361230 0.037525 0.070323
0.363970 -0.055119 0.071152
0.362091 -0.025461 0.070583
0.362693 0.020186 0.070897
0.365488 -0.039051 0.071504
0.365733 -0.025635 0.071635
0.364021 0.024231 0.071168
0.365502 0.043094 0.071616
0.367323 0.002913 0.072485
0.366209 0.018160 0.072671
0.366871 0.034719 0.072243
0.366778 0.045463 0.072079
0.367667 0.051409 0.072669
0.367008 0.055017 0.072316
0.368575 -0.051326 0.073413
0.369346 -0.049827 0.073566
0.368092 -0.043927 0.072400
0.368365 -0.040723 0.072483
0.369044 -0.030545 0.073460
0.369821 -0.024069 0.073820
0.369510 -0.014896 0.073654
0.368747 -0.006282 0.073246
0.368890 -0.001270 0.073322
0.368315 0.005803 0.073015
0.369734 0.037898 0.073529
0.368459 0.052066 0.073092
0.371703 -0.023191 0.073493
0.370499 0.016894 0.073571
0.371827 0.031029 0.073531
0.371944 0.037343 0.073748
0.371933 0.043650 0.073563
0.370504 0.046758 0.073590
0.372455 -0.033387 0.073721
0.372457 -0.031373 0.073721
0.373904 0.001801 0.074160
0.373136 0.028908 0.073867
0.373408 0.052312 0.074009
0.375455 -0.052130 0.074629
0.375060 -0.044717 0.074348
0.375306 -0.025446 0.074083
0.374380 -0.022172 0.074303
0.374302 -0.014863 0.073983
0.374157 -0.012985 0.073968
0.374024 -0.006707 0.074172
0.375173 0.008430 0.075029
0.375377 0.010116 0.074605
0.375030 0.022694 0.074500
0.375472 0.025468 0.074099
0.375473 0.033161 0.074634
0.374809 0.043439 0.074433
0.374822 0.048830 0.074437
0.376231 -0.026661 0.074864
0.377737 0.018397 0.074324
0.376915 0.023027 0.074242
0.377949 0.027140 0.074753
0.377809 0.029936 0.074767
0.376198 0.032205 0.074854
0.376820 0.042354 0.074233
0.377436 0.049429 0.074294
0.377255 0.051430 0.074276
0.376915 0.057387 0.075071
0.379762 -0.040274 0.074541
0.378230 -0.035310 0.074725
0.378375 -0.012299 0.074711
0.379651 -0.000404 0.074584
0.379441 0.013106 0.074521
0.379619 0.026988 0.074511
0.378160 0.033287 0.074366
0.379727 0.034325 0.074540
0.379381 0.045018 0.074611
0.380312 -0.050378 0.074539
0.380707 -0.044058 0.074479
0.381844 -0.042897 0.074366
0.380544 -0.036876 0.074527
0.380283 -0.003942 0.074537
0.381675 0.002682 0.074383
0.381636 0.017793 0.074712
0.380920 0.041406 0.074641
0.383276 -0.050636 0.074875
0.383920 -0.042871 0.074159
0.383941 -0.032972 0.074157
0.382565 -0.008189 0.074804
0.382438 -0.006271 0.074307
0.382765 -0.005049 0.074274
0.382298 -0.000165 0.074321
0.383935 0.006152 0.074940
0.383094 0.011107 0.075068
0.383130 0.016684 0.074238
0.383160 0.026634 0.075048
0.385288 -0.049600 0.074023
0.385897 -0.000281 0.073963
0.384103 0.000379 0.074141
0.385869 0.003240 0.074168
0.385693 0.007020 0.074856
0.385636 0.011346 0.073989
0.385606 0.035957 0.074308
0.386438 -0.049470 0.074056
0.387940 -0.036229 0.073601
0.386654 0.006476 0.073991
0.386902 0.022110 0.073916
0.387767 0.033467 0.073654
0.388149 -0.039034 0.073739
0.389228 -0.034013 0.073632
0.388014 -0.027170 0.073579
0.389352 -0.006208 0.073548
0.389648 -0.000951 0.073590
0.389658 0.006043 0.073435
0.389176 0.055234 0.073227
0.391823 -0.042372 0.072426
0.390487 -0.036533 0.073507
0.390572 -0.018638 0.073174
0.390452 -0.004145 0.073020
0.391707 0.000762 0.072461
0.390977 0.002240 0.073393
0.390535 0.021231 0.073630
0.391207 0.032206 0.073250
0.390030 0.047422 0.073552
0.393276 -0.037906 0.072059
0.392585 -0.007292 0.072534
0.393645 -0.000541 0.071874
0.393241 0.016441 0.071997
0.392671 0.027444 0.072169
0.393023 0.031549 0.072300
0.392723 0.044480 0.072460
0.396327 -0.026603 0.071062
0.397430 0.006048 0.070728
0.397101 0.052046 0.070120
0.396705 0.054149 0.070332
0.399795 -0.050776 0.068852
0.399550 -0.045838 0.068811
0.398433 -0.038245 0.069971
0.398950 -0.008981 0.070212
0.401774 -0.052177 0.067295
0.400748 -0.047165 0.068069
0.402938 0.040452 0.067506
