ply
format ascii 1.0
element vertex 152
property float x
property float y
property float z
end_header
0.355500 0.034227 0.066165
0.356346 -0.048368 0.066082
0.359464 -0.036312 0.068243
0.358918 0.049117 0.067802
0.360873 -0.032881 0.069401
0.361028 0.030523 0.069528
0.361804 0.039650 0.070166
0.362590 -0.056340 0.070735
0.363022 0.018007 0.071166
0.363919 0.025033 0.071137
0.362109 0.049265 0.070589
0.363566 0.055982 0.070476
0.365973 -0.033996 0.071763
0.364047 -0.006727 0.071176
0.365878 0.034316 0.071730
0.367170 -0.033441 0.072121
0.366446 -0.021186 0.071902
0.367771 -0.010153 0.073334
0.367930 0.004825 0.072809
0.367087 0.023225 0.072096
0.367587 0.052792 0.072626
0.368058 -0.046765 0.072878
0.368157 -0.038792 0.072420
0.369856 -0.031472 0.073839
0.368274 -0.029917 0.073384
0.369674 -0.015703 0.073741
0.369254 -0.006303 0.072752
0.368176 0.034808 0.072941
0.370201 -0.055594 0.073575
0.370326 -0.039328 0.073588
0.370406 -0.031650 0.074133
0.370282 -0.006946 0.074067
0.371934 0.022329 0.073563
0.371724 0.031954 0.073500
0.372982 -0.056165 0.073881
0.372631 -0.046136 0.073817
0.372713 -0.042082 0.073825
0.373409 -0.030730 0.074010
0.373218 -0.016211 0.073875
0.373079 -0.014698 0.073861
0.373539 -0.010087 0.074049
0.372419 -0.003360 0.073710
0.373045 0.028666 0.073900
0.373526 0.052970 0.074045
0.375951 -0.042586 0.074147
0.374959 -0.026885 0.074048
0.374968 -0.025162 0.075049
0.374113 -0.011045 0.074854
0.375797 -0.003648 0.074131
0.375746 -0.000008 0.074126
0.375762 0.040154 0.074722
0.374848 0.054987 0.074445
0.377399 -0.050391 0.075217
0.376918 -0.025022 0.074243
0.376310 -0.011312 0.074182
0.377576 -0.008873 0.074308
0.376634 -0.004473 0.074215
0.377402 0.000309 0.074291
0.377400 0.007004 0.074291
0.376057 0.009119 0.074157
0.376061 0.026349 0.074158
0.377268 0.033868 0.074278
0.376240 0.049449 0.074596
0.379000 -0.046287 0.074491
0.378187 -0.038248 0.074369
0.378801 -0.029110 0.074454
0.378619 -0.020563 0.074686
0.378146 -0.016475 0.074365
0.379556 -0.014892 0.074521
0.379610 -0.010325 0.074588
0.379168 -0.004825 0.074486
0.379672 0.026358 0.074537
0.378200 0.031527 0.074370
0.378076 0.047051 0.074740
0.380747 -0.042914 0.074475
0.380915 -0.041174 0.074640
0.380209 -0.039846 0.074570
0.380616 -0.037176 0.074488
0.381439 -0.025327 0.074692
0.381595 -0.011383 0.074391
0.381799 0.002337 0.074370
0.380468 0.012367 0.075450
0.380993 0.016925 0.074648
0.381851 0.033815 0.074733
0.380327 0.036648 0.074517
0.380027 0.038639 0.074544
0.382175 -0.045372 0.074765
0.383201 -0.032167 0.074231
0.383244 -0.021641 0.075023
0.383776 -0.014729 0.074174
0.383448 -0.010133 0.074206
0.382986 -0.000930 0.074398
0.383476 0.018196 0.074221
0.382631 0.036730 0.074288
0.382379 0.052116 0.075285
0.385902 -0.044920 0.073962
0.384564 -0.041840 0.074095
0.384224 -0.030763 0.074129
0.385125 -0.022311 0.074040
0.385185 -0.020288 0.074086
0.385028 -0.011571 0.075049
0.384448 0.008639 0.074107
0.384403 0.010897 0.074672
0.384074 0.026601 0.074144
0.384789 0.032782 0.074073
0.384822 0.054977 0.074958
0.386903 -0.032379 0.073863
0.387286 -0.030332 0.073825
0.387714 -0.024514 0.073670
0.386308 -0.017325 0.073922
0.386524 -0.003901 0.074030
0.386152 -0.001208 0.073938
0.386685 0.003751 0.073885
0.386550 0.052942 0.074022
0.388167 -0.044770 0.073532
0.389807 -0.043704 0.073036
0.389968 -0.033990 0.073535
0.389830 -0.026413 0.073530
0.389789 -0.002158 0.073576
0.388065 -0.001607 0.073747
0.389813 0.002618 0.073574
0.389850 0.039526 0.073570
0.391955 -0.052801 0.072386
0.391180 -0.032176 0.072620
0.390469 0.011477 0.073129
0.393963 -0.056980 0.071830
0.392854 -0.036576 0.072390
0.392001 -0.026493 0.072484
0.392450 -0.015003 0.072236
0.392121 -0.011122 0.072782
0.393622 -0.008863 0.071881
0.392644 0.044899 0.072502
0.392234 0.051374 0.072721
0.394833 -0.054492 0.071332
0.395396 -0.039320 0.071344
0.395132 -0.037824 0.071172
0.394614 0.030324 0.071449
0.394572 0.034956 0.071594
0.395495 0.049582 0.070978
0.394300 0.050885 0.071617
0.396423 -0.040839 0.070482
0.396688 0.013907 0.071405
0.396316 0.017976 0.071066
0.396129 0.018859 0.071122
0.397137 0.034779 0.070817
0.398883 -0.051617 0.069167
0.398471 -0.048462 0.069388
0.398121 -0.047233 0.070227
0.399272 0.034135 0.068959
0.398630 0.045809 0.069810
0.399074 0.055148 0.069085
0.400837 0.041562 0.067996
